ply
format ascii 1.0
comment Created by CloudCompare v2.11.1 (Anoia)
comment Created 2020-09-03 10:08 AM
obj_info Generated by CloudCompare!
element vertex 762
property float x
property float y
property float z
property float nx
property float ny
property float nz
end_header
0.0121449 -0.0258536 -0.060412 0.865851 0.00133413 -0.500299 
0.0133192 0.0410475 -0.058378 0.865851 0.00133413 -0.500299 
0.0239264 -0.0130231 -0.0400058 0.865851 0.00133413 -0.500299 
0.0256492 -0.0220845 -0.0370219 0.865851 0.00133413 -0.500299 
0.0131471 0.0358138 -0.058676 0.865851 0.00133413 -0.500299 
0.0221787 -0.0437879 -0.0430329 0.865851 0.00133413 -0.500299 
0.0249257 -0.0604563 -0.038275 0.865851 0.00133413 -0.500299 
0.014338 -0.0366066 -0.0566134 0.865851 0.00133413 -0.500299 
0.0256502 -0.0563094 -0.03702 0.865851 0.00133413 -0.500299 
0.0265695 -0.019052 -0.0354277 0.865851 0.00133413 -0.500299 
0.010279 0.00192269 -0.0636437 0.865851 0.00133413 -0.500299 
0.0139198 -0.0126263 -0.0573377 0.865851 0.00133413 -0.500299 
0.00963846 0.0253987 -0.0647532 0.865851 0.00133413 -0.500299 
0.0140132 -0.0132406 -0.0571759 0.865851 0.00133413 -0.500299 
0.0101926 -0.0259343 -0.0637935 0.865851 0.00133413 -0.500299 
0.0148622 0.00823534 -0.0557055 0.865851 0.00133413 -0.500299 
0.0134134 -0.0169026 -0.0582149 0.865851 0.00133413 -0.500299 
0.022267 -0.0424483 -0.04288 0.865851 0.00133413 -0.500299 
0.00964247 0.0073248 -0.0647463 0.865851 0.00133413 -0.500299 
0.0114119 -0.0198725 -0.0616815 0.865851 0.00133413 -0.500299 
0.0204251 0.00371359 -0.0460702 0.865851 0.00133413 -0.500299 
0.0197484 0.00380591 -0.0472422 0.865851 0.00133413 -0.500299 
0.0132361 0.0326787 -0.058522 0.865851 0.00133413 -0.500299 
0.0127141 0.0613883 -0.0594261 0.865851 0.00133413 -0.500299 
0.0309303 -0.0486748 -0.0278746 0.865851 0.00133413 -0.500299 
0.0156028 0.00854575 -0.0544227 0.865851 0.00133413 -0.500299 
0.0196505 -0.0668855 -0.0474119 0.865851 0.00133413 -0.500299 
0.0119836 0.0156814 -0.0606914 0.865851 0.00133413 -0.500299 
0.0149771 0.034687 -0.0555064 0.865851 0.00133413 -0.500299 
0.0119762 -0.0709148 -0.0607042 0.865851 0.00133413 -0.500299 
0.0171006 -0.0325717 -0.0518285 0.865851 0.00133413 -0.500299 
0.0105002 -0.0739784 -0.0632606 0.865851 0.00133413 -0.500299 
0.0157827 -0.0395888 -0.0541111 0.865851 0.00133413 -0.500299 
0.0187599 -0.0642883 -0.0489544 0.865851 0.00133413 -0.500299 
0.0189296 -0.0300935 -0.0486605 0.865851 0.00133413 -0.500299 
0.0278059 -0.0425657 -0.0332863 0.865851 0.00133413 -0.500299 
0.0129933 -0.0563762 -0.0589425 0.865851 0.00133413 -0.500299 
0.0233501 -0.0338801 -0.041004 0.865851 0.00133413 -0.500299 
0.00999807 0.0710575 -0.0641304 0.865851 0.00133413 -0.500299 
0.0175827 -0.037992 -0.0509933 0.865851 0.00133413 -0.500299 
0.0213026 -0.0668009 -0.0445504 0.865851 0.00133413 -0.500299 
0.0163381 -0.0477562 -0.0531492 0.865851 0.00133413 -0.500299 
0.0201461 0.00446608 -0.0465534 0.865851 0.00133413 -0.500299 
0.0173989 -0.00820434 -0.0513118 0.865851 0.00133413 -0.500299 
0.0257243 -0.0495676 -0.0368917 0.865851 0.00133413 -0.500299 
0.0136221 0.0310379 -0.0578534 0.865851 0.00133413 -0.500299 
0.0117349 -0.0124428 -0.0611221 0.865851 0.00133413 -0.500299 
0.0139911 -0.00904942 -0.0572142 0.865851 0.00133413 -0.500299 
0.0277762 -0.0339169 -0.0333377 0.865851 0.00133413 -0.500299 
0.0140287 0.0424085 -0.0571491 0.865851 0.00133413 -0.500299 
0.0143053 -0.0344932 -0.05667 0.865851 0.00133413 -0.500299 
0.015485 0.0388034 -0.0546268 0.865851 0.00133413 -0.500299 
0.0259361 -0.0459902 -0.0365249 0.865851 0.00133413 -0.500299 
0.0264916 -0.0408566 -0.0355628 0.865851 0.00133413 -0.500299 
0.0148906 -0.0385956 -0.0556562 0.865851 0.00133413 -0.500299 
0.0200483 0.0208694 -0.0467229 0.865851 0.00133413 -0.500299 
0.0190302 -0.0697625 -0.0484863 0.865851 0.00133413 -0.500299 
0.0140129 0.0586745 -0.0571765 0.865851 0.00133413 -0.500299 
0.0159679 -0.0534945 -0.0537904 0.865851 0.00133413 -0.500299 
0.0101349 -0.0843483 -0.0638934 0.865851 0.00133413 -0.500299 
0.0219276 0.00487994 -0.0434677 0.865851 0.00133413 -0.500299 
0.0231134 -0.00223337 -0.041414 0.865851 0.00133413 -0.500299 
0.0235285 0.00493058 -0.040695 0.865851 0.00133413 -0.500299 
0.0161691 -0.00327447 -0.0534418 0.865851 0.00133413 -0.500299 
0.027531 -0.0444233 -0.0337624 0.865851 0.00133413 -0.500299 
0.00967177 -0.036496 -0.0646955 0.865851 0.00133413 -0.500299 
0.0102252 -0.082129 -0.063737 0.865851 0.00133413 -0.500299 
0.0144394 -0.0598011 -0.0564378 0.865851 0.00133413 -0.500299 
0.0137214 -0.0312028 -0.0576813 0.865851 0.00133413 -0.500299 
0.0190937 0.0275676 -0.0483762 0.865851 0.00133413 -0.500299 
0.025789 -0.0537485 -0.0367798 0.865851 0.00133413 -0.500299 
0.0230661 -0.0380984 -0.0414958 0.865851 0.00133413 -0.500299 
0.0129145 0.0301163 -0.0590789 0.865851 0.00133413 -0.500299 
0.0232002 -0.0548094 -0.0412636 0.865851 0.00133413 -0.500299 
0.0107703 -0.00894553 -0.0627928 0.865851 0.00133413 -0.500299 
0.0183671 -0.0479649 -0.0496347 0.865851 0.00133413 -0.500299 
0.0107868 0.028748 -0.0627643 0.865851 0.00133413 -0.500299 
0.0145392 -0.0501657 -0.0562648 0.865851 0.00133413 -0.500299 
0.0297923 -0.0427932 -0.0298458 0.865851 0.00133413 -0.500299 
0.0164981 -0.0275564 -0.052872 0.865851 0.00133413 -0.500299 
0.0182219 0.00449362 -0.0498863 0.865851 0.00133413 -0.500299 
0.0119479 -0.00153543 -0.0607531 0.865851 0.00133413 -0.500299 
0.0114872 -0.0809537 -0.0615512 0.865851 0.00133413 -0.500299 
0.0109602 0.0492759 -0.062464 0.865851 0.00133413 -0.500299 
0.0270253 -0.0348793 -0.0346383 0.865851 0.00133413 -0.500299 
0.0277546 -0.0262804 -0.0333752 0.865851 0.00133413 -0.500299 
0.0257817 -0.0355847 -0.0367922 0.865851 0.00133413 -0.500299 
0.0114229 -0.0434728 -0.0616624 0.865851 0.00133413 -0.500299 
0.0231308 -0.0629725 -0.0413838 0.865851 0.00133413 -0.500299 
0.0248683 -0.0214067 -0.0383743 0.865851 0.00133413 -0.500299 
0.021261 -0.0254792 -0.0446223 0.865851 0.00133413 -0.500299 
0.0139937 -0.0677754 -0.0572098 0.865851 0.00133413 -0.500299 
0.0104869 -0.0833181 -0.0632837 0.865851 0.00133413 -0.500299 
0.0184462 -0.0138029 -0.0494978 0.865851 0.00133413 -0.500299 
0.0139518 0.0310171 -0.0572822 0.865851 0.00133413 -0.500299 
0.0298641 -0.049543 -0.0297213 0.865851 0.00133413 -0.500299 
0.014615 0.0380673 -0.0561336 0.865851 0.00133413 -0.500299 
0.0105173 -0.059697 -0.0632311 0.865851 0.00133413 -0.500299 
0.0140099 -0.0719813 -0.0571817 0.865851 0.00133413 -0.500299 
0.0182346 -0.0115388 -0.0498643 0.865851 0.00133413 -0.500299 
0.0138215 -0.0687433 -0.057508 0.865851 0.00133413 -0.500299 
0.0100376 -0.0627614 -0.0640619 0.865851 0.00133413 -0.500299 
0.018951 0.0124082 -0.0486235 0.865851 0.00133413 -0.500299 
0.0300198 -0.0374737 -0.0294518 0.865851 0.00133413 -0.500299 
0.00955797 -0.0770623 -0.0648926 0.865851 0.00133413 -0.500299 
0.0116697 -0.0248797 -0.0612351 0.865851 0.00133413 -0.500299 
0.0258305 -0.0235266 -0.0367078 0.865851 0.00133413 -0.500299 
0.014162 -0.0470966 -0.0569183 0.865851 0.00133413 -0.500299 
0.0240931 -0.00813441 -0.0397171 0.865851 0.00133413 -0.500299 
0.0146241 0.0135803 -0.0561179 0.865851 0.00133413 -0.500299 
0.011776 -0.0421871 -0.0610508 0.865851 0.00133413 -0.500299 
0.0233317 -0.0354372 -0.0410358 0.865851 0.00133413 -0.500299 
0.0114338 0.0327835 -0.0616436 0.865851 0.00133413 -0.500299 
0.013061 -0.000525087 -0.0588252 0.865851 0.00133413 -0.500299 
0.0191388 0.00397216 -0.0482982 0.865851 0.00133413 -0.500299 
0.0249652 -0.0524496 -0.0382065 0.865851 0.00133413 -0.500299 
0.0147827 -0.0733153 -0.0558431 0.865851 0.00133413 -0.500299 
0.0178408 -0.0143824 -0.0505464 0.865851 0.00133413 -0.500299 
0.0226752 0.000727197 -0.0421729 0.865851 0.00133413 -0.500299 
0.0119487 0.0526859 -0.0607518 0.865851 0.00133413 -0.500299 
0.0116525 -0.0459695 -0.0612649 0.865851 0.00133413 -0.500299 
0.0197136 0.0245301 -0.0473026 0.865851 0.00133413 -0.500299 
0.023875 -0.0602973 -0.0400948 0.865851 0.00133413 -0.500299 
0.0134848 0.0373741 -0.0580911 0.865851 0.00133413 -0.500299 
0.0189835 -0.0524441 -0.0485672 0.865851 0.00133413 -0.500299 
0.0215576 -0.0207229 -0.0441087 0.865851 0.00133413 -0.500299 
0.00971692 0.0706591 -0.0646173 0.865851 0.00133413 -0.500299 
0.0176463 -0.0512137 -0.0508832 0.865851 0.00133413 -0.500299 
0.0189899 -0.0397428 -0.048556 0.865851 0.00133413 -0.500299 
0.0136878 0.0562605 -0.0577395 0.865851 0.00133413 -0.500299 
0.0132078 -0.054574 -0.0585709 0.865851 0.00133413 -0.500299 
0.0199715 -0.0535667 -0.0468559 0.865851 0.00133413 -0.500299 
0.0133153 0.00329113 -0.0583847 0.865851 0.00133413 -0.500299 
0.025397 -0.0448349 -0.0374586 0.865851 0.00133413 -0.500299 
0.0175148 0.0344014 -0.051111 0.865851 0.00133413 -0.500299 
0.0109364 -0.0208445 -0.0625051 0.865851 0.00133413 -0.500299 
0.0110718 0.018541 -0.0622705 0.865851 0.00133413 -0.500299 
0.0180502 -0.0333536 -0.0501836 0.865851 0.00133413 -0.500299 
0.025991 -0.0367926 -0.0364298 0.865851 0.00133413 -0.500299 
0.0168448 -0.0501614 -0.0522715 0.865851 0.00133413 -0.500299 
0.00984085 0.0734891 -0.0644027 0.865851 0.00133413 -0.500299 
0.013547 0.0254167 -0.0579835 0.865851 0.00133413 -0.500299 
0.0179261 -0.0686203 -0.0503987 0.865851 0.00133413 -0.500299 
0.0216317 -0.000381581 -0.0439803 0.865851 0.00133413 -0.500299 
0.0158271 -0.0423993 -0.0540343 0.865851 0.00133413 -0.500299 
0.0181143 0.0167387 -0.0500727 0.865851 0.00133413 -0.500299 
0.0211237 -0.0479737 -0.0448603 0.865851 0.00133413 -0.500299 
0.0154149 -0.0328641 -0.0547482 0.865851 0.00133413 -0.500299 
0.0104689 -0.0126501 -0.0633148 0.865851 0.00133413 -0.500299 
0.0155909 -0.0744761 -0.0544433 0.865851 0.00133413 -0.500299 
0.0200972 -0.0120348 -0.0466381 0.865851 0.00133413 -0.500299 
0.0197366 0.00914653 -0.0472627 0.865851 0.00133413 -0.500299 
0.0156865 0.00982204 -0.0542777 0.865851 0.00133413 -0.500299 
0.0249297 -0.0242165 -0.0382681 0.865851 0.00133413 -0.500299 
0.0101588 0.0573714 -0.063852 0.865851 0.00133413 -0.500299 
0.015731 -0.0194394 -0.0542007 0.865851 0.00133413 -0.500299 
0.0247191 -0.0570054 -0.0386328 0.865851 0.00133413 -0.500299 
0.0239119 -0.00712959 -0.0400309 0.865851 0.00133413 -0.500299 
0.0185408 -0.00329148 -0.049334 0.865851 0.00133413 -0.500299 
0.0134332 -0.0288119 -0.0581806 0.865851 0.00133413 -0.500299 
0.0203515 -0.0032455 -0.0461977 0.865851 0.00133413 -0.500299 
0.0163697 -0.0724989 -0.0530944 0.865851 0.00133413 -0.500299 
0.0122221 -0.0393878 -0.0602782 0.865851 0.00133413 -0.500299 
0.0285762 -0.0443416 -0.0319522 0.865851 0.00133413 -0.500299 
0.0209394 -0.0442115 -0.0451794 0.865851 0.00133413 -0.500299 
0.0196895 -0.0140532 -0.0473443 0.865851 0.00133413 -0.500299 
0.0170491 -0.0131552 -0.0519176 0.865851 0.00133413 -0.500299 
0.0129792 -0.040513 -0.0589669 0.865851 0.00133413 -0.500299 
0.0117108 0.0495429 -0.0611639 0.865851 0.00133413 -0.500299 
0.0224795 0.00795287 -0.0425119 0.865851 0.00133413 -0.500299 
0.0211503 -0.0169627 -0.0448142 0.865851 0.00133413 -0.500299 
0.0131917 0.0427031 -0.0585988 0.865851 0.00133413 -0.500299 
0.0119847 0.0334077 -0.0606894 0.865851 0.00133413 -0.500299 
0.0119572 -0.021109 -0.060737 0.865851 0.00133413 -0.500299 
0.0224661 0.00165204 -0.042535 0.865851 0.00133413 -0.500299 
0.0151439 -0.059139 -0.0552175 0.865851 0.00133413 -0.500299 
0.0181659 -0.00997863 -0.0499832 0.865851 0.00133413 -0.500299 
0.0128483 0.0439846 -0.0591937 0.865851 0.00133413 -0.500299 
0.0104853 0.0617853 -0.0632864 0.865851 0.00133413 -0.500299 
0.0120705 -0.00786223 -0.0605409 0.865851 0.00133413 -0.500299 
0.022565 -0.0526384 -0.0423638 0.865851 0.00133413 -0.500299 
0.0163649 -0.041293 -0.0531027 0.865851 0.00133413 -0.500299 
0.0105998 -0.0349312 -0.0630882 0.865851 0.00133413 -0.500299 
0.0272488 -0.027547 -0.0342512 0.865851 0.00133413 -0.500299 
0.0180494 -0.0499055 -0.0501851 0.865851 0.00133413 -0.500299 
0.0266407 -0.0440936 -0.0353045 0.865851 0.00133413 -0.500299 
0.0103989 -0.0714463 -0.0634361 0.865851 0.00133413 -0.500299 
0.012011 0.00689347 -0.0606439 0.865851 0.00133413 -0.500299 
0.0133765 -0.0393398 -0.0582787 0.865851 0.00133413 -0.500299 
0.025655 -0.0300023 -0.0370118 0.865851 0.00133413 -0.500299 
0.0261788 -0.0292762 -0.0361045 0.865851 0.00133413 -0.500299 
0.0219791 -0.0294497 -0.0433786 0.865851 0.00133413 -0.500299 
0.014725 -0.00744412 -0.0559431 0.865851 0.00133413 -0.500299 
0.0113801 -0.0550479 -0.0617367 0.865851 0.00133413 -0.500299 
0.0228468 -0.0378993 -0.0418757 0.865851 0.00133413 -0.500299 
0.0246742 -0.0531886 -0.0387105 0.865851 0.00133413 -0.500299 
0.026042 -0.0540858 -0.0363414 0.865851 0.00133413 -0.500299 
0.0101857 0.0694566 -0.0638054 0.865851 0.00133413 -0.500299 
0.0121235 0.00244198 -0.060449 0.865851 0.00133413 -0.500299 
0.0116701 0.0097743 -0.0612343 0.865851 0.00133413 -0.500299 
0.0142165 0.00790454 -0.0568239 0.865851 0.00133413 -0.500299 
0.0247807 -0.00404361 -0.038526 0.865851 0.00133413 -0.500299 
0.0103213 -0.0345099 -0.0635705 0.865851 0.00133413 -0.500299 
0.0229912 -0.0182911 -0.0416255 0.865851 0.00133413 -0.500299 
0.0151534 -0.061623 -0.0552011 0.865851 0.00133413 -0.500299 
0.0145363 -0.0598659 -0.05627 0.865851 0.00133413 -0.500299 
0.0205804 -0.0165369 -0.0458013 0.865851 0.00133413 -0.500299 
0.00985911 0.0130532 -0.064371 0.865851 0.00133413 -0.500299 
0.0171554 -0.0229531 -0.0517335 0.865851 0.00133413 -0.500299 
0.0247816 -0.0114404 -0.0385245 0.865851 0.00133413 -0.500299 
0.0121518 0.0585675 -0.0604 0.865851 0.00133413 -0.500299 
0.0153723 -0.0114529 -0.0548219 0.865851 0.00133413 -0.500299 
0.0240285 0.00154316 -0.039829 0.865851 0.00133413 -0.500299 
0.0191132 -0.0160146 -0.0483426 0.865851 0.00133413 -0.500299 
0.011175 0.032672 -0.0620919 0.865851 0.00133413 -0.500299 
0.0108273 -0.00596627 -0.0626941 0.865851 0.00133413 -0.500299 
0.0221152 -0.0204986 -0.0431429 0.865851 0.00133413 -0.500299 
0.0273556 -0.0199674 -0.0340663 0.865851 0.00133413 -0.500299 
0.0206911 0.0158954 -0.0456095 0.865851 0.00133413 -0.500299 
0.0195514 -0.0543633 -0.0475835 0.865851 0.00133413 -0.500299 
0.0104501 -0.0482705 -0.0633475 0.865851 0.00133413 -0.500299 
0.0181189 -0.0355741 -0.0500646 0.865851 0.00133413 -0.500299 
0.0225233 -0.0437578 -0.0424361 0.865851 0.00133413 -0.500299 
0.0100434 -0.0449399 -0.0640518 0.865851 0.00133413 -0.500299 
0.01275 0.0492186 -0.0593639 0.865851 0.00133413 -0.500299 
0.0192272 -0.0698563 -0.0481451 0.865851 0.00133413 -0.500299 
0.0135452 -0.0490461 -0.0579866 0.865851 0.00133413 -0.500299 
0.0170366 0.017047 -0.0519392 0.865851 0.00133413 -0.500299 
0.0114121 -0.0542172 -0.0616813 0.865851 0.00133413 -0.500299 
0.0291689 -0.0474006 -0.0309255 0.865851 0.00133413 -0.500299 
0.0211149 -0.00413802 -0.0448755 0.865851 0.00133413 -0.500299 
0.0254954 -0.0583172 -0.0372882 0.865851 0.00133413 -0.500299 
0.021509 0.00484093 -0.0441928 0.865851 0.00133413 -0.500299 
0.014862 -0.0454635 -0.0557058 0.865851 0.00133413 -0.500299 
0.0207086 -0.0279266 -0.0455792 0.865851 0.00133413 -0.500299 
0.0108903 -0.0809074 -0.062585 0.865851 0.00133413 -0.500299 
0.0176706 0.00698972 -0.0508412 0.865851 0.00133413 -0.500299 
0.0233304 -0.0171724 -0.0410381 0.865851 0.00133413 -0.500299 
0.00986362 0.0248424 -0.0643632 0.865851 0.00133413 -0.500299 
0.0217653 -0.0470896 -0.0437489 0.865851 0.00133413 -0.500299 
0.0134987 0.0371867 -0.058067 0.865851 0.00133413 -0.500299 
0.0139748 0.0576177 -0.0572425 0.865851 0.00133413 -0.500299 
0.0162692 0.0404304 -0.0532684 0.865851 0.00133413 -0.500299 
0.0111093 -0.0340619 -0.0622056 0.865851 0.00133413 -0.500299 
0.0110726 0.0590486 -0.0622692 0.865851 0.00133413 -0.500299 
0.0116261 0.00105726 -0.0613106 0.865851 0.00133413 -0.500299 
0.0127783 0.0351917 -0.0593148 0.865851 0.00133413 -0.500299 
0.0196876 -0.0391911 -0.0473476 0.865851 0.00133413 -0.500299 
0.0222922 -0.000417056 -0.0428363 0.865851 0.00133413 -0.500299 
0.0104968 -0.0275172 -0.0632665 0.865851 0.00133413 -0.500299 
0.0221315 -0.00882867 -0.0431146 0.865851 0.00133413 -0.500299 
0.0121269 -0.00804491 -0.0604432 0.865851 0.00133413 -0.500299 
0.0118204 -0.06292 -0.060974 0.865851 0.00133413 -0.500299 
0.0262311 -0.0516206 -0.036014 0.865851 0.00133413 -0.500299 
0.0139455 0.053557 -0.0572933 0.865851 0.00133413 -0.500299 
0.0255437 -0.0211035 -0.0372045 0.865851 0.00133413 -0.500299 
0.0146321 -0.0548414 -0.0561041 0.865851 0.00133413 -0.500299 
0.0107039 0.00391898 -0.0629079 0.865851 0.00133413 -0.500299 
0.0294273 -0.0498058 -0.030478 0.865851 0.00133413 -0.500299 
0.020252 -0.0103158 -0.0463701 0.865851 0.00133413 -0.500299 
0.0139285 0.0556112 -0.0573227 0.865851 0.00133413 -0.500299 
0.0114802 0.0511005 -0.0615632 0.865851 0.00133413 -0.500299 
0.0103685 -0.0592035 -0.0634887 0.865851 0.00133413 -0.500299 
0.0166103 -0.0441179 -0.0526777 0.865851 0.00133413 -0.500299 
0.0226359 -0.0336031 -0.0422411 0.865851 0.00133413 -0.500299 
0.0105701 0.0179969 -0.0631396 0.865851 0.00133413 -0.500299 
0.0274017 -0.0274031 -0.0339864 0.865851 0.00133413 -0.500299 
0.0097653 0.0644085 -0.0645335 0.865851 0.00133413 -0.500299 
0.0188866 0.00601968 -0.0487349 0.865851 0.00133413 -0.500299 
0.0250407 -0.0105067 -0.0380757 0.865851 0.00133413 -0.500299 
0.0108205 0.00519079 -0.0627059 0.865851 0.00133413 -0.500299 
0.0259848 -0.0453521 -0.0364405 0.865851 0.00133413 -0.500299 
0.014748 0.0184373 -0.0559033 0.865851 0.00133413 -0.500299 
0.023786 -0.00670775 -0.0402491 0.865851 0.00133413 -0.500299 
0.0197441 -0.0107487 -0.0472498 0.865851 0.00133413 -0.500299 
0.0264278 -0.0196096 -0.0356732 0.865851 0.00133413 -0.500299 
0.0213547 -0.012122 -0.0444602 0.865851 0.00133413 -0.500299 
0.0169122 0.0160591 -0.0521548 0.865851 0.00133413 -0.500299 
0.0137938 -0.0402144 -0.0575559 0.865851 0.00133413 -0.500299 
0.0194974 -0.00212532 -0.047677 0.865851 0.00133413 -0.500299 
0.0132022 -0.0580501 -0.0585806 0.865851 0.00133413 -0.500299 
0.019185 -0.0438676 -0.0482181 0.865851 0.00133413 -0.500299 
0.0267114 -0.0515837 -0.0351821 0.865851 0.00133413 -0.500299 
0.0157241 0.0350649 -0.0542126 0.865851 0.00133413 -0.500299 
0.0189743 -0.0629995 -0.048583 0.865851 0.00133413 -0.500299 
0.0112959 0.02281 -0.0618824 0.865851 0.00133413 -0.500299 
0.024877 -0.0376872 -0.0383593 0.865851 0.00133413 -0.500299 
0.00983465 -0.0801917 -0.0644134 0.865851 0.00133413 -0.500299 
0.0192681 -0.0601572 -0.0480742 0.865851 0.00133413 -0.500299 
0.0270154 -0.034399 -0.0346555 0.865851 0.00133413 -0.500299 
0.0197055 -0.0121926 -0.0473166 0.865851 0.00133413 -0.500299 
0.0220788 -0.0124881 -0.043206 0.865851 0.00133413 -0.500299 
0.0104243 0.0311316 -0.0633921 0.865851 0.00133413 -0.500299 
0.020197 0.00848396 -0.0464652 0.865851 0.00133413 -0.500299 
0.0149619 0.0196709 -0.0555328 0.865851 0.00133413 -0.500299 
0.0131166 -0.0237957 -0.0587289 0.865851 0.00133413 -0.500299 
0.0101943 0.00159631 -0.0637906 0.865851 0.00133413 -0.500299 
0.0107007 0.0119036 -0.0629133 0.865851 0.00133413 -0.500299 
0.0140209 -0.0656565 -0.0571626 0.865851 0.00133413 -0.500299 
0.0098448 -0.0153297 -0.0643958 0.865851 0.00133413 -0.500299 
0.0101539 0.0488967 -0.0638604 0.865851 0.00133413 -0.500299 
0.0169696 -0.0723969 -0.0520554 0.865851 0.00133413 -0.500299 
0.0108088 -0.0432825 -0.0627261 0.865851 0.00133413 -0.500299 
0.0174126 -0.0506944 -0.0512881 0.865851 0.00133413 -0.500299 
0.0106218 0.0671815 -0.0630501 0.865851 0.00133413 -0.500299 
0.0249617 -0.0407422 -0.0382126 0.865851 0.00133413 -0.500299 
0.0183706 0.0156499 -0.0496287 0.865851 0.00133413 -0.500299 
0.00951556 0.0575225 -0.0649661 0.865851 0.00133413 -0.500299 
0.0296578 -0.040722 -0.0300788 0.865851 0.00133413 -0.500299 
0.0143427 -0.0450775 -0.0566052 0.865851 0.00133413 -0.500299 
0.0197959 -0.00464553 -0.0471601 0.865851 0.00133413 -0.500299 
0.015011 0.0531086 -0.0554478 0.865851 0.00133413 -0.500299 
0.0271097 -0.040226 -0.0344922 0.865851 0.00133413 -0.500299 
0.0136382 -0.0380396 -0.0578254 0.865851 0.00133413 -0.500299 
0.0210592 -0.0559423 -0.0449719 0.865851 0.00133413 -0.500299 
0.01755 -0.0018525 -0.05105 0.865851 0.00133413 -0.500299 
0.011838 -0.0782512 -0.0609436 0.865851 0.00133413 -0.500299 
0.0129138 -0.00600629 -0.0590802 0.865851 0.00133413 -0.500299 
0.0133575 -0.058424 -0.0583117 0.865851 0.00133413 -0.500299 
0.0103082 -0.0833136 -0.0635932 0.865851 0.00133413 -0.500299 
0.00955419 -0.016333 -0.0648992 0.865851 0.00133413 -0.500299 
0.0129734 -0.0774033 -0.0589769 0.865851 0.00133413 -0.500299 
0.0220374 -0.0587211 -0.0432776 0.865851 0.00133413 -0.500299 
0.0133827 -0.0334208 -0.058268 0.865851 0.00133413 -0.500299 
0.0130969 -0.0713317 -0.058763 0.865851 0.00133413 -0.500299 
0.0244174 -7.68926e-05 -0.0391554 0.865851 0.00133413 -0.500299 
0.0111691 0.016524 -0.062102 0.865851 0.00133413 -0.500299 
0.018462 0.0233962 -0.0494704 0.865851 0.00133413 -0.500299 
0.0204258 -0.0199349 -0.0460689 0.865851 0.00133413 -0.500299 
0.0124246 0.049159 -0.0599274 0.865851 0.00133413 -0.500299 
0.00998122 -0.0408581 -0.0641596 0.865851 0.00133413 -0.500299 
0.0239931 -0.0596229 -0.0398902 0.865851 0.00133413 -0.500299 
0.0178722 0.0233902 -0.050492 0.865851 0.00133413 -0.500299 
0.0166051 0.024692 -0.0526866 0.865851 0.00133413 -0.500299 
0.0176912 0.00576675 -0.0508054 0.865851 0.00133413 -0.500299 
0.0165913 0.0210322 -0.0527106 0.865851 0.00133413 -0.500299 
0.0115283 0.057984 -0.0614799 0.865851 0.00133413 -0.500299 
0.0116894 0.0612956 -0.0612008 0.865851 0.00133413 -0.500299 
0.0102098 -0.0538307 -0.0637636 0.865851 0.00133413 -0.500299 
0.0221588 0.00645916 -0.0430674 0.865851 0.00133413 -0.500299 
0.0125658 -0.00996913 -0.059683 0.865851 0.00133413 -0.500299 
0.00965128 0.0738117 -0.064731 0.865851 0.00133413 -0.500299 
0.0205883 0.00200259 -0.0457875 0.865851 0.00133413 -0.500299 
0.0126604 0.0185138 -0.0595191 0.865851 0.00133413 -0.500299 
0.0151053 -0.0281132 -0.0552843 0.865851 0.00133413 -0.500299 
0.0198664 -0.0143133 -0.0470379 0.865851 0.00133413 -0.500299 
0.0202377 -0.059282 -0.0463948 0.865851 0.00133413 -0.500299 
0.0124404 0.000142939 -0.0599001 0.865851 0.00133413 -0.500299 
0.0238147 -0.0594799 -0.0401992 0.865851 0.00133413 -0.500299 
0.010938 0.0609047 -0.0625023 0.865851 0.00133413 -0.500299 
0.0195165 -0.00588303 -0.0476439 0.865851 0.00133413 -0.500299 
0.0126551 0.0518231 -0.0595283 0.865851 0.00133413 -0.500299 
0.0130829 -0.0609116 -0.0587873 0.865851 0.00133413 -0.500299 
0.020702 -0.0202979 -0.0455906 0.865851 0.00133413 -0.500299 
0.0259596 -0.0366676 -0.0364841 0.865851 0.00133413 -0.500299 
0.0216902 -0.00126593 -0.043879 0.865851 0.00133413 -0.500299 
0.0105155 0.00510294 -0.0632342 0.865851 0.00133413 -0.500299 
0.0202453 0.0160729 -0.0463816 0.865851 0.00133413 -0.500299 
0.0180337 0.0373032 -0.0502123 0.865851 0.00133413 -0.500299 
0.0315164 -0.0466789 -0.0268595 0.865851 0.00133413 -0.500299 
0.0131573 -0.0373289 -0.0586584 0.865851 0.00133413 -0.500299 
0.0154425 0.00829143 -0.0547004 0.865851 0.00133413 -0.500299 
0.0142866 -0.013576 -0.0567024 0.865851 0.00133413 -0.500299 
0.0117543 0.0625384 -0.0610884 0.865851 0.00133413 -0.500299 
0.0139087 -0.00853217 -0.057357 0.865851 0.00133413 -0.500299 
0.0156452 -0.0754286 -0.0543493 0.865851 0.00133413 -0.500299 
0.0186667 -0.0192123 -0.0491158 0.865851 0.00133413 -0.500299 
0.01279 0.0478172 -0.0592946 0.865851 0.00133413 -0.500299 
0.0183451 0.00150765 -0.049673 0.865851 0.00133413 -0.500299 
0.0185441 -0.00179835 -0.0493282 0.865851 0.00133413 -0.500299 
0.0158311 -0.0711856 -0.0540272 0.865851 0.00133413 -0.500299 
0.0222063 -0.0596542 -0.0429852 0.865851 0.00133413 -0.500299 
0.0137057 0.0202278 -0.0577086 0.865851 0.00133413 -0.500299 
0.00979503 0.0362624 -0.064482 0.865851 0.00133413 -0.500299 
0.0141159 -0.0678621 -0.0569981 0.865851 0.00133413 -0.500299 
0.0167407 -0.0543852 -0.0524518 0.865851 0.00133413 -0.500299 
0.0145989 0.00023856 -0.0561615 0.865851 0.00133413 -0.500299 
0.0144711 -0.0292752 -0.0563828 0.865851 0.00133413 -0.500299 
0.0189694 -0.0665371 -0.0485916 0.865851 0.00133413 -0.500299 
0.0121775 0.00736926 -0.0603555 0.865851 0.00133413 -0.500299 
0.0171936 0.0082642 -0.0516673 0.865851 0.00133413 -0.500299 
0.021065 0.00515101 -0.0449618 0.865851 0.00133413 -0.500299 
0.0297933 -0.0325446 -0.0298441 0.865851 0.00133413 -0.500299 
0.0107544 0.0452141 -0.0628203 0.865851 0.00133413 -0.500299 
0.0177712 -0.0402454 -0.0506668 0.865851 0.00133413 -0.500299 
0.0190763 0.0275345 -0.0484064 0.865851 0.00133413 -0.500299 
0.0222261 -0.00104465 -0.0429508 0.865851 0.00133413 -0.500299 
0.0105462 0.033391 -0.0631809 0.865851 0.00133413 -0.500299 
0.0180127 0.0353852 -0.0502485 0.865851 0.00133413 -0.500299 
0.00960954 0.0731068 -0.0648033 0.865851 0.00133413 -0.500299 
0.0228792 -0.00650211 -0.0418196 0.865851 0.00133413 -0.500299 
0.0198762 -0.0621338 -0.0470209 0.865851 0.00133413 -0.500299 
0.0132581 0.0448536 -0.0584838 0.865851 0.00133413 -0.500299 
0.0151124 0.0131316 -0.0552721 0.865851 0.00133413 -0.500299 
0.0173215 0.0407601 -0.0514459 0.865851 0.00133413 -0.500299 
0.0100706 0.0638978 -0.0640047 0.865851 0.00133413 -0.500299 
0.0134603 0.0253821 -0.0581336 0.865851 0.00133413 -0.500299 
0.0199119 -0.0106569 -0.046959 0.865851 0.00133413 -0.500299 
0.0128703 -0.0134746 -0.0591555 0.865851 0.00133413 -0.500299 
0.0175482 0.000731289 -0.0510531 0.865851 0.00133413 -0.500299 
0.0150588 0.0537029 -0.055365 0.865851 0.00133413 -0.500299 
0.028261 -0.0253511 -0.0324981 0.865851 0.00133413 -0.500299 
0.0129212 -0.0697354 -0.0590674 0.865851 0.00133413 -0.500299 
0.0270447 -0.0519567 -0.0346048 0.865851 0.00133413 -0.500299 
0.0146098 -0.0520203 -0.0561426 0.865851 0.00133413 -0.500299 
0.0177945 -0.04927 -0.0506266 0.865851 0.00133413 -0.500299 
0.0124927 0.0218352 -0.0598095 0.865851 0.00133413 -0.500299 
0.0170082 0.0175213 -0.0519885 0.865851 0.00133413 -0.500299 
0.0189421 0.0314214 -0.0486388 0.865851 0.00133413 -0.500299 
0.0101404 0.0651238 -0.0638838 0.865851 0.00133413 -0.500299 
0.0150943 0.0347939 -0.0553035 0.865851 0.00133413 -0.500299 
0.0160959 -0.0595132 -0.0535686 0.865851 0.00133413 -0.500299 
0.0211694 -0.0301646 -0.044781 0.865851 0.00133413 -0.500299 
0.0205927 -0.0446492 -0.0457798 0.865851 0.00133413 -0.500299 
0.0118048 -0.0583613 -0.0610011 0.865851 0.00133413 -0.500299 
0.0179377 0.0229767 -0.0503785 0.865851 0.00133413 -0.500299 
0.015811 -0.0634898 -0.054062 0.865851 0.00133413 -0.500299 
0.0112225 -0.0441773 -0.0620096 0.865851 0.00133413 -0.500299 
0.0269249 -0.0194191 -0.0348123 0.865851 0.00133413 -0.500299 
0.01151 -0.0815988 -0.0615116 0.865851 0.00133413 -0.500299 
0.0123932 -0.0678164 -0.0599819 0.865851 0.00133413 -0.500299 
0.0113915 0.0269696 -0.0617169 0.865851 0.00133413 -0.500299 
0.0152579 -0.0491031 -0.0550201 0.865851 0.00133413 -0.500299 
0.0215208 0.00983898 -0.0441724 0.865851 0.00133413 -0.500299 
0.0261953 -0.0314598 -0.0360759 0.865851 0.00133413 -0.500299 
0.014412 0.0276351 -0.0564852 0.865851 0.00133413 -0.500299 
0.0182165 0.0333402 -0.0498956 0.865851 0.00133413 -0.500299 
0.0152031 -0.0135785 -0.055115 0.865851 0.00133413 -0.500299 
0.0122585 0.0349482 -0.0602152 0.865851 0.00133413 -0.500299 
0.0231019 -0.0397357 -0.0414338 0.865851 0.00133413 -0.500299 
0.0264984 -0.0331726 -0.035551 0.865851 0.00133413 -0.500299 
0.0229723 -0.0426259 -0.0416583 0.865851 0.00133413 -0.500299 
0.0142169 -0.0606783 -0.0568231 0.865851 0.00133413 -0.500299 
0.0125302 -0.0754377 -0.0597446 0.865851 0.00133413 -0.500299 
0.0172935 -0.042194 -0.0514943 0.865851 0.00133413 -0.500299 
0.00991754 0.00770786 -0.0642698 0.865851 0.00133413 -0.500299 
0.0210635 -0.0650768 -0.0449645 0.865851 0.00133413 -0.500299 
0.0201703 -0.0042445 -0.0465115 0.865851 0.00133413 -0.500299 
0.0178159 0.00301451 -0.0505894 0.865851 0.00133413 -0.500299 
0.0178086 -0.026429 -0.0506021 0.865851 0.00133413 -0.500299 
0.0209655 -0.00642828 -0.0451342 0.865851 0.00133413 -0.500299 
0.012169 -0.0629001 -0.0603701 0.865851 0.00133413 -0.500299 
0.0142513 0.0367986 -0.0567636 0.865851 0.00133413 -0.500299 
0.0158008 0.00383158 -0.0540798 0.865851 0.00133413 -0.500299 
0.0119458 0.0440097 -0.0607569 0.865851 0.00133413 -0.500299 
0.0213952 -0.00712815 -0.0443899 0.865851 0.00133413 -0.500299 
0.0211598 -0.00328981 -0.0447976 0.865851 0.00133413 -0.500299 
0.0191562 -0.0700065 -0.048268 0.865851 0.00133413 -0.500299 
0.0161173 -0.0102831 -0.0535315 0.865851 0.00133413 -0.500299 
0.0168983 -0.0643107 -0.0521787 0.865851 0.00133413 -0.500299 
0.01607 -0.0728726 -0.0536135 0.865851 0.00133413 -0.500299 
0.011073 -0.0755752 -0.0622685 0.865851 0.00133413 -0.500299 
0.0210882 0.0152595 -0.0449218 0.865851 0.00133413 -0.500299 
0.023026 -0.0494908 -0.0415654 0.865851 0.00133413 -0.500299 
0.0111225 0.0512405 -0.0621828 0.865851 0.00133413 -0.500299 
0.0118296 0.0391729 -0.0609581 0.865851 0.00133413 -0.500299 
0.0107372 0.0750597 -0.0628502 0.865851 0.00133413 -0.500299 
0.0100194 -0.029393 -0.0640934 0.865851 0.00133413 -0.500299 
0.016705 -0.0563779 -0.0525136 0.865851 0.00133413 -0.500299 
0.0145691 0.0102888 -0.0562131 0.865851 0.00133413 -0.500299 
0.0155979 0.0436267 -0.0544312 0.865851 0.00133413 -0.500299 
0.0204127 -0.0673894 -0.0460917 0.865851 0.00133413 -0.500299 
0.0114661 -0.000140987 -0.0615877 0.865851 0.00133413 -0.500299 
0.017526 0.0286705 -0.0510916 0.865851 0.00133413 -0.500299 
0.0320091 -0.0456446 -0.0260062 0.865851 0.00133413 -0.500299 
0.0115385 -0.0680086 -0.0614623 0.865851 0.00133413 -0.500299 
0.0218728 -0.0204525 -0.0435628 0.865851 0.00133413 -0.500299 
0.0281685 -0.0253992 -0.0326582 0.865851 0.00133413 -0.500299 
0.0236437 -0.00534672 -0.0404955 0.865851 0.00133413 -0.500299 
0.0142026 -0.0756318 -0.0568479 0.865851 0.00133413 -0.500299 
0.0137269 -0.0388853 -0.0576719 0.865851 0.00133413 -0.500299 
0.020622 -0.0572115 -0.0457291 0.865851 0.00133413 -0.500299 
0.022639 0.00558904 -0.0422356 0.865851 0.00133413 -0.500299 
0.0212408 -0.0190464 -0.0446574 0.865851 0.00133413 -0.500299 
0.0121738 0.0644497 -0.0603618 0.865851 0.00133413 -0.500299 
0.0102727 0.0375428 -0.0636547 0.865851 0.00133413 -0.500299 
0.0205314 -0.0319409 -0.045886 0.865851 0.00133413 -0.500299 
0.0124132 -0.0305814 -0.0599472 0.865851 0.00133413 -0.500299 
0.0143419 -0.0276858 -0.0566067 0.865851 0.00133413 -0.500299 
0.0132303 0.0505687 -0.0585319 0.865851 0.00133413 -0.500299 
0.0155357 -0.0534778 -0.0545388 0.865851 0.00133413 -0.500299 
0.0131748 0.0519534 -0.0586281 0.865851 0.00133413 -0.500299 
0.0226964 0.00966784 -0.0421363 0.865851 0.00133413 -0.500299 
0.0159298 -0.0256265 -0.0538562 0.865851 0.00133413 -0.500299 
0.0179358 0.00736248 -0.0503818 0.865851 0.00133413 -0.500299 
0.0291349 -0.0367422 -0.0309843 0.865851 0.00133413 -0.500299 
0.0134458 -0.0358497 -0.0581587 0.865851 0.00133413 -0.500299 
0.0218869 -0.0508682 -0.0435383 0.865851 0.00133413 -0.500299 
0.0202696 0.0213238 -0.0463395 0.865851 0.00133413 -0.500299 
0.015976 -0.0528361 -0.0537762 0.865851 0.00133413 -0.500299 
0.0102091 0.0246118 -0.0637649 0.865851 0.00133413 -0.500299 
0.018471 0.00840338 -0.0494548 0.865851 0.00133413 -0.500299 
0.0161194 -0.0306627 -0.0535279 0.865851 0.00133413 -0.500299 
0.0104635 -0.00185511 -0.0633242 0.865851 0.00133413 -0.500299 
0.0115468 0.0165392 -0.0614479 0.865851 0.00133413 -0.500299 
0.015719 0.0147731 -0.0542215 0.865851 0.00133413 -0.500299 
0.0195492 -0.0315485 -0.0475874 0.865851 0.00133413 -0.500299 
0.0106333 0.00784148 -0.0630302 0.865851 0.00133413 -0.500299 
0.0101244 -0.00071045 -0.0639115 0.865851 0.00133413 -0.500299 
0.0120444 -0.00257654 -0.0605861 0.865851 0.00133413 -0.500299 
0.0114308 -0.078682 -0.0616487 0.865851 0.00133413 -0.500299 
0.0108545 -0.0773621 -0.062647 0.865851 0.00133413 -0.500299 
0.0172885 -0.0738963 -0.0515029 0.865851 0.00133413 -0.500299 
0.0113543 -0.0256959 -0.0617812 0.865851 0.00133413 -0.500299 
0.0197472 -0.067111 -0.0472443 0.865851 0.00133413 -0.500299 
0.0186884 -0.0603121 -0.0490783 0.865851 0.00133413 -0.500299 
0.0192361 0.0149823 -0.0481296 0.865851 0.00133413 -0.500299 
0.0185716 -0.0690175 -0.0492806 0.865851 0.00133413 -0.500299 
0.0166437 0.0209506 -0.0526197 0.865851 0.00133413 -0.500299 
0.0110537 -0.021138 -0.062302 0.865851 0.00133413 -0.500299 
0.011994 -0.0351211 -0.0606733 0.865851 0.00133413 -0.500299 
0.0148148 -0.0221123 -0.0557876 0.865851 0.00133413 -0.500299 
0.0285814 -0.0271836 -0.0319431 0.865851 0.00133413 -0.500299 
0.026912 -0.0185173 -0.0348345 0.865851 0.00133413 -0.500299 
0.0109942 0.0539581 -0.062405 0.865851 0.00133413 -0.500299 
0.0320578 -0.0455438 -0.0259217 0.865851 0.00133413 -0.500299 
0.0227262 -0.00887254 -0.0420846 0.865851 0.00133413 -0.500299 
0.0188652 -0.0561482 -0.048772 0.865851 0.00133413 -0.500299 
0.0120106 0.0314587 -0.0606446 0.865851 0.00133413 -0.500299 
0.0126805 -0.0644243 -0.0594843 0.865851 0.00133413 -0.500299 
0.0117815 -0.0375636 -0.0610414 0.865851 0.00133413 -0.500299 
0.0129658 0.00427839 -0.0589901 0.865851 0.00133413 -0.500299 
0.0215095 0.0170952 -0.0441919 0.865851 0.00133413 -0.500299 
0.0167096 -0.0502583 -0.0525056 0.865851 0.00133413 -0.500299 
0.0191231 -0.0570124 -0.0483254 0.865851 0.00133413 -0.500299 
0.0109827 -0.041191 -0.062425 0.865851 0.00133413 -0.500299 
0.0150963 -0.021244 -0.0553 0.865851 0.00133413 -0.500299 
0.0230711 -0.0194702 -0.0414872 0.865851 0.00133413 -0.500299 
0.0157799 0.0100197 -0.054116 0.865851 0.00133413 -0.500299 
0.0128443 -0.00431559 -0.0592005 0.865851 0.00133413 -0.500299 
0.0141844 -0.0638248 -0.0568794 0.865851 0.00133413 -0.500299 
0.0188771 -0.0162956 -0.0487514 0.865851 0.00133413 -0.500299 
0.0188249 -0.0709794 -0.0488418 0.865851 0.00133413 -0.500299 
0.0120583 -0.000493251 -0.060562 0.865851 0.00133413 -0.500299 
0.0273202 -0.0266111 -0.0341275 0.865851 0.00133413 -0.500299 
0.0234284 -0.0432359 -0.0408683 0.865851 0.00133413 -0.500299 
0.00958523 -0.0420379 -0.0648454 0.865851 0.00133413 -0.500299 
0.0125197 0.0608589 -0.0597627 0.865851 0.00133413 -0.500299 
0.0114509 -0.0494231 -0.0616141 0.865851 0.00133413 -0.500299 
0.0149058 -0.0557875 -0.0556299 0.865851 0.00133413 -0.500299 
0.00977145 -0.0390519 -0.0645229 0.865851 0.00133413 -0.500299 
0.021466 -0.0330748 -0.0442673 0.865851 0.00133413 -0.500299 
0.0242276 -0.038115 -0.0394841 0.865851 0.00133413 -0.500299 
0.0233016 -0.0281064 -0.041088 0.865851 0.00133413 -0.500299 
0.0152875 -0.0487183 -0.0549687 0.865851 0.00133413 -0.500299 
0.0161772 -0.00591351 -0.0534277 0.865851 0.00133413 -0.500299 
0.0187606 -0.0250789 -0.0489532 0.865851 0.00133413 -0.500299 
0.0182278 -0.0454802 -0.0498761 0.865851 0.00133413 -0.500299 
0.0156864 0.0499143 -0.0542779 0.865851 0.00133413 -0.500299 
0.0251578 -0.0275709 -0.037873 0.865851 0.00133413 -0.500299 
0.0277731 -0.0512809 -0.0333431 0.865851 0.00133413 -0.500299 
0.0112115 -0.0138914 -0.0620286 0.865851 0.00133413 -0.500299 
0.0223765 -0.0498863 -0.0426903 0.865851 0.00133413 -0.500299 
0.020269 -0.0280679 -0.0463407 0.865851 0.00133413 -0.500299 
0.0230363 -0.0221362 -0.0415474 0.865851 0.00133413 -0.500299 
0.0267245 -0.0461039 -0.0351593 0.865851 0.00133413 -0.500299 
0.0156668 -0.06955 -0.0543118 0.865851 0.00133413 -0.500299 
0.0114237 0.0364575 -0.0616611 0.865851 0.00133413 -0.500299 
0.0128076 0.0296107 -0.0592641 0.865851 0.00133413 -0.500299 
0.012303 -0.0458972 -0.0601381 0.865851 0.00133413 -0.500299 
0.0104979 0.0336043 -0.0632646 0.865851 0.00133413 -0.500299 
0.0184053 -0.00460708 -0.0495686 0.865851 0.00133413 -0.500299 
0.023402 0.0048633 -0.0409141 0.865851 0.00133413 -0.500299 
0.0139117 -0.0561141 -0.0573517 0.865851 0.00133413 -0.500299 
0.0153182 0.0516344 -0.0549157 0.865851 0.00133413 -0.500299 
0.0191141 0.000558674 -0.0483409 0.865851 0.00133413 -0.500299 
0.01417 0.0572328 -0.0569044 0.865851 0.00133413 -0.500299 
0.0111274 -0.00375922 -0.0621743 0.865851 0.00133413 -0.500299 
0.0170318 -0.0511683 -0.0519476 0.865851 0.00133413 -0.500299 
0.0229432 -0.0113737 -0.0417087 0.865851 0.00133413 -0.500299 
0.015015 0.0193839 -0.0554408 0.865851 0.00133413 -0.500299 
0.014489 0.0297997 -0.0563519 0.865851 0.00133413 -0.500299 
0.0160073 0.0395512 -0.0537222 0.865851 0.00133413 -0.500299 
0.00996218 0.0318065 -0.0641925 0.865851 0.00133413 -0.500299 
0.0203941 -0.017872 -0.046124 0.865851 0.00133413 -0.500299 
0.0194153 -0.0631029 -0.0478192 0.865851 0.00133413 -0.500299 
0.0194161 -0.0284386 -0.0478179 0.865851 0.00133413 -0.500299 
0.00995379 -0.0857112 -0.0642071 0.865851 0.00133413 -0.500299 
0.0257741 -0.0573655 -0.0368055 0.865851 0.00133413 -0.500299 
0.0283392 -0.0267471 -0.0323627 0.865851 0.00133413 -0.500299 
0.0179849 0.0207256 -0.0502968 0.865851 0.00133413 -0.500299 
0.0298762 -0.0480295 -0.0297005 0.865851 0.00133413 -0.500299 
0.0203272 -0.0335246 -0.0462399 0.865851 0.00133413 -0.500299 
0.0297492 -0.0497077 -0.0299205 0.865851 0.00133413 -0.500299 
0.0213435 -0.0334879 -0.0444795 0.865851 0.00133413 -0.500299 
0.0156945 0.0118226 -0.0542638 0.865851 0.00133413 -0.500299 
0.012718 0.0244671 -0.0594193 0.865851 0.00133413 -0.500299 
0.027238 -0.0319056 -0.0342699 0.865851 0.00133413 -0.500299 
0.0289558 -0.0529628 -0.0312947 0.865851 0.00133413 -0.500299 
0.0125508 0.0622459 -0.0597089 0.865851 0.00133413 -0.500299 
0.0249637 -0.0238633 -0.0382092 0.865851 0.00133413 -0.500299 
0.00983539 0.0175637 -0.0644121 0.865851 0.00133413 -0.500299 
0.0129292 -0.0473773 -0.0590535 0.865851 0.00133413 -0.500299 
0.0221515 -0.0526471 -0.04308 0.865851 0.00133413 -0.500299 
0.0150012 0.00897525 -0.0554647 0.865851 0.00133413 -0.500299 
0.0141628 -0.0724191 -0.0569169 0.865851 0.00133413 -0.500299 
0.0210015 -0.0101139 -0.045072 0.865851 0.00133413 -0.500299 
0.00978141 -0.0433908 -0.0645056 0.865851 0.00133413 -0.500299 
0.0121348 0.03725 -0.0604295 0.865851 0.00133413 -0.500299 
0.0147758 -0.0112072 -0.0558551 0.865851 0.00133413 -0.500299 
0.0198906 -0.0100731 -0.0469961 0.865851 0.00133413 -0.500299 
0.0253782 -0.0117461 -0.0374912 0.865851 0.00133413 -0.500299 
0.0232419 -0.00474202 -0.0411914 0.865851 0.00133413 -0.500299 
0.0105849 0.057542 -0.063114 0.865851 0.00133413 -0.500299 
0.0180614 0.00424975 -0.0501643 0.865851 0.00133413 -0.500299 
0.00997926 -0.00551189 -0.0641629 0.865851 0.00133413 -0.500299 
0.0219786 -0.00923731 -0.0433795 0.865851 0.00133413 -0.500299 
0.0103117 0.0573724 -0.0635872 0.865851 0.00133413 -0.500299 
0.0237833 -0.00293913 -0.0402536 0.865851 0.00133413 -0.500299 
0.0155565 0.0210208 -0.0545028 0.865851 0.00133413 -0.500299 
0.0170195 0.0021249 -0.0519689 0.865851 0.00133413 -0.500299 
0.0219088 -0.00808838 -0.0435005 0.865851 0.00133413 -0.500299 
0.0237434 -0.0247583 -0.0403227 0.865851 0.00133413 -0.500299 
0.0167972 -0.0455102 -0.052354 0.865851 0.00133413 -0.500299 
0.0102807 0.0594158 -0.0636408 0.865851 0.00133413 -0.500299 
0.011872 -0.0474804 -0.0608846 0.865851 0.00133413 -0.500299 
0.0255451 -0.00917921 -0.0372021 0.865851 0.00133413 -0.500299 
0.0287811 -0.0315306 -0.0315973 0.865851 0.00133413 -0.500299 
0.0193921 -0.0364938 -0.0478593 0.865851 0.00133413 -0.500299 
0.0121588 -0.0603044 -0.0603879 0.865851 0.00133413 -0.500299 
0.0254954 -0.0541107 -0.0372882 0.865851 0.00133413 -0.500299 
0.013239 -0.0345622 -0.0585169 0.865851 0.00133413 -0.500299 
0.0258886 -0.011313 -0.0366071 0.865851 0.00133413 -0.500299 
0.0203688 -0.0200655 -0.0461677 0.865851 0.00133413 -0.500299 
0.0226681 -0.00711568 -0.0421852 0.865851 0.00133413 -0.500299 
0.0205042 -0.0631521 -0.0459333 0.865851 0.00133413 -0.500299 
0.0202323 -0.0654145 -0.0464041 0.865851 0.00133413 -0.500299 
0.0111972 0.0217952 -0.0620534 0.865851 0.00133413 -0.500299 
0.0198823 0.0220897 -0.0470104 0.865851 0.00133413 -0.500299 
0.02388 -0.0554939 -0.0400862 0.865851 0.00133413 -0.500299 
0.0189881 -0.0484187 -0.0485592 0.865851 0.00133413 -0.500299 
0.0243746 -0.0437349 -0.0392295 0.865851 0.00133413 -0.500299 
0.0171931 0.019157 -0.0516682 0.865851 0.00133413 -0.500299 
0.0170505 0.00406515 -0.0519153 0.865851 0.00133413 -0.500299 
0.022108 -0.0217244 -0.0431553 0.865851 0.00133413 -0.500299 
0.0122566 -0.0387673 -0.0602185 0.865851 0.00133413 -0.500299 
0.00971352 -0.057239 -0.0646232 0.865851 0.00133413 -0.500299 
0.0129481 0.0659185 -0.0590208 0.865851 0.00133413 -0.500299 
0.026402 -0.0132975 -0.0357179 0.865851 0.00133413 -0.500299 
0.0225739 -0.0531377 -0.0423485 0.865851 0.00133413 -0.500299 
0.0187124 -0.0256591 -0.0490368 0.865851 0.00133413 -0.500299 
0.0115062 0.0231502 -0.0615181 0.865851 0.00133413 -0.500299 
0.0238192 -0.016418 -0.0401914 0.865851 0.00133413 -0.500299 
0.0123023 -0.0273377 -0.0601393 0.865851 0.00133413 -0.500299 
0.011455 0.0569277 -0.0616069 0.865851 0.00133413 -0.500299 
0.0111005 -0.074305 -0.0622208 0.865851 0.00133413 -0.500299 
0.0152011 0.00558602 -0.0551185 0.865851 0.00133413 -0.500299 
0.01689 0.0349319 -0.0521932 0.865851 0.00133413 -0.500299 
0.0148461 -0.0446803 -0.0557333 0.865851 0.00133413 -0.500299 
0.0239721 -0.0226536 -0.0399267 0.865851 0.00133413 -0.500299 
0.021438 -0.00784387 -0.0443158 0.865851 0.00133413 -0.500299 
0.0246633 -0.0177531 -0.0387295 0.865851 0.00133413 -0.500299 
0.0230217 -0.014655 -0.0415728 0.865851 0.00133413 -0.500299 
0.0130453 -0.0458566 -0.0588524 0.865851 0.00133413 -0.500299 
0.0110785 0.0703195 -0.062259 0.865851 0.00133413 -0.500299 
0.0106467 0.0482386 -0.0630069 0.865851 0.00133413 -0.500299 
0.0110139 0.0449041 -0.062371 0.865851 0.00133413 -0.500299 
0.0148175 0.00103848 -0.0557828 0.865851 0.00133413 -0.500299 
0.0252642 -0.0240743 -0.0376887 0.865851 0.00133413 -0.500299 
0.0137881 0.015257 -0.0575659 0.865851 0.00133413 -0.500299 
0.0233122 -0.000798215 -0.0410697 0.865851 0.00133413 -0.500299 
0.0259188 -0.0315118 -0.0365548 0.865851 0.00133413 -0.500299 
0.0142884 -0.0179311 -0.0566993 0.865851 0.00133413 -0.500299 
0.0135643 0.046191 -0.0579535 0.865851 0.00133413 -0.500299 
0.0104931 0.0453909 -0.0632729 0.865851 0.00133413 -0.500299 
0.020843 0.00118306 -0.0453464 0.865851 0.00133413 -0.500299 
0.0197069 -0.00470071 -0.0473142 0.865851 0.00133413 -0.500299 
0.0182367 0.0139444 -0.0498606 0.865851 0.00133413 -0.500299 
0.029636 -0.0355679 -0.0301164 0.865851 0.00133413 -0.500299 
0.0159172 -0.011799 -0.0538782 0.865851 0.00133413 -0.500299 
0.0166388 -0.0645704 -0.0526282 0.865851 0.00133413 -0.500299 
0.0110388 0.0476586 -0.0623279 0.865851 0.00133413 -0.500299 
0.0121534 -0.0214756 -0.0603972 0.865851 0.00133413 -0.500299 
0.00974249 0.00346243 -0.064573 0.865851 0.00133413 -0.500299 
0.0167519 0.0308424 -0.0524323 0.865851 0.00133413 -0.500299 
0.0188366 0.025199 -0.0488217 0.865851 0.00133413 -0.500299 
0.0189844 -0.0113068 -0.0485656 0.865851 0.00133413 -0.500299 
0.0290995 -0.0363294 -0.0310457 0.865851 0.00133413 -0.500299 
0.015142 -0.0312499 -0.0552209 0.865851 0.00133413 -0.500299 
0.0128558 -0.0415343 -0.0591807 0.865851 0.00133413 -0.500299 
0.0153526 0.00256288 -0.054856 0.865851 0.00133413 -0.500299 
0.0169203 -0.00839867 -0.0521408 0.865851 0.00133413 -0.500299 
0.0142946 0.0593612 -0.0566885 0.865851 0.00133413 -0.500299 
0.0148664 0.0218218 -0.0556982 0.865851 0.00133413 -0.500299 
0.0121862 -0.0416198 -0.0603404 0.865851 0.00133413 -0.500299 
0.0229451 -0.0112162 -0.0417054 0.865851 0.00133413 -0.500299 
0.0099864 0.0025081 -0.0641506 0.865851 0.00133413 -0.500299 
0.0155511 -0.0216439 -0.0545122 0.865851 0.00133413 -0.500299 
0.0139708 0.0130918 -0.0572494 0.865851 0.00133413 -0.500299 
0.0166717 -0.0430326 -0.0525712 0.865851 0.00133413 -0.500299 
0.0103373 -0.0205267 -0.0635427 0.865851 0.00133413 -0.500299 
0.0178284 -0.0176694 -0.0505678 0.865851 0.00133413 -0.500299 
0.0159193 -0.0245248 -0.0538746 0.865851 0.00133413 -0.500299 
0.017709 -0.040011 -0.0507746 0.865851 0.00133413 -0.500299 
0.0197754 -0.0126704 -0.0471956 0.865851 0.00133413 -0.500299 
0.017254 0.0353129 -0.0515627 0.865851 0.00133413 -0.500299 
0.0213288 -0.0128232 -0.044505 0.865851 0.00133413 -0.500299 
0.0214152 -0.000768296 -0.0443553 0.865851 0.00133413 -0.500299 
0.0261384 -0.0402946 -0.0361745 0.865851 0.00133413 -0.500299 
0.0102101 -0.0287663 -0.0637632 0.865851 0.00133413 -0.500299 
0.0208155 -0.0364294 -0.0453941 0.865851 0.00133413 -0.500299 
0.0128117 -0.0308474 -0.0592571 0.865851 0.00133413 -0.500299 
0.0245088 -0.0245015 -0.038997 0.865851 0.00133413 -0.500299 
0.0227314 -0.0363953 -0.0420756 0.865851 0.00133413 -0.500299 
0.0231876 -0.00505078 -0.0412854 0.865851 0.00133413 -0.500299 
0.0180718 -0.0620354 -0.0501462 0.865851 0.00133413 -0.500299 
0.0129428 0.0284183 -0.0590299 0.865851 0.00133413 -0.500299 
0.019982 -0.00973039 -0.0468378 0.865851 0.00133413 -0.500299 
0.0228528 -0.0620099 -0.0418653 0.865851 0.00133413 -0.500299 
0.0139123 -0.0372656 -0.0573508 0.865851 0.00133413 -0.500299 
0.0122746 -0.0688504 -0.0601874 0.865851 0.00133413 -0.500299 
0.0144058 -0.0539415 -0.056496 0.865851 0.00133413 -0.500299 
0.0229709 -0.0244513 -0.0416608 0.865851 0.00133413 -0.500299 
0.0127906 -0.0697174 -0.0592936 0.865851 0.00133413 -0.500299 
0.0174199 -0.0258369 -0.0512754 0.865851 0.00133413 -0.500299 
0.0111637 0.0740004 -0.0621115 0.865851 0.00133413 -0.500299 
0.0275113 -0.0224769 -0.0337966 0.865851 0.00133413 -0.500299 
0.0105005 0.0349597 -0.0632602 0.865851 0.00133413 -0.500299 
0.0127953 -0.0649684 -0.0592854 0.865851 0.00133413 -0.500299 
0.0234379 -0.0405627 -0.040852 0.865851 0.00133413 -0.500299 
0.013595 -0.0409746 -0.0579004 0.865851 0.00133413 -0.500299 
0.0122733 -0.0808612 -0.0601896 0.865851 0.00133413 -0.500299 
0.0303234 -0.0408863 -0.0289258 0.865851 0.00133413 -0.500299 
0.0138906 -0.00857559 -0.0573882 0.865851 0.00133413 -0.500299 
0.026968 -0.042628 -0.0347377 0.865851 0.00133413 -0.500299 
0.010935 -0.0500768 -0.0625075 0.865851 0.00133413 -0.500299 
0.031242 -0.0453261 -0.0273347 0.865851 0.00133413 -0.500299 
0.0230529 -0.0554415 -0.0415188 0.865851 0.00133413 -0.500299 
0.0146843 -0.0590674 -0.0560136 0.865851 0.00133413 -0.500299 
0.00958763 -0.0579244 -0.0648413 0.865851 0.00133413 -0.500299 
0.0142975 -0.0761386 -0.0566835 0.865851 0.00133413 -0.500299 
0.0123863 0.0253489 -0.0599938 0.865851 0.00133413 -0.500299 
0.0117374 0.027578 -0.0611178 0.865851 0.00133413 -0.500299 
0.0206634 0.00162386 -0.0456575 0.865851 0.00133413 -0.500299 
0.0141675 -0.0609925 -0.0569087 0.865851 0.00133413 -0.500299 
0.0124893 -0.0684545 -0.0598155 0.865851 0.00133413 -0.500299 
0.0144177 -0.0148359 -0.0564754 0.865851 0.00133413 -0.500299 
0.0136384 0.0602204 -0.0578252 0.865851 0.00133413 -0.500299 
0.0211769 0.00749471 -0.0447681 0.865851 0.00133413 -0.500299 
0.025765 -0.0227582 -0.0368212 0.865851 0.00133413 -0.500299 
0.0157715 0.0175742 -0.0541306 0.865851 0.00133413 -0.500299 
0.0310542 -0.0397327 -0.0276601 0.865851 0.00133413 -0.500299 
0.0127335 0.0674538 -0.0593924 0.865851 0.00133413 -0.500299 
0.0122243 0.0510778 -0.0602744 0.865851 0.00133413 -0.500299 
0.0228146 -0.0220615 -0.0419314 0.865851 0.00133413 -0.500299 
0.0195786 -0.046438 -0.0475364 0.865851 0.00133413 -0.500299 
0.0130165 0.00759125 -0.0589023 0.865851 0.00133413 -0.500299 
0.0116298 -0.0565128 -0.0613042 0.865851 0.00133413 -0.500299 
0.0105846 -0.0168978 -0.0631145 0.865851 0.00133413 -0.500299 
0.0166766 0.00477128 -0.0525629 0.865851 0.00133413 -0.500299 
0.0105767 -0.0542157 -0.0631281 0.865851 0.00133413 -0.500299 
0.0126159 0.0627035 -0.0595961 0.865851 0.00133413 -0.500299 
0.0208764 -0.0573786 -0.0452885 0.865851 0.00133413 -0.500299 
0.0196096 -0.0566707 -0.0474827 0.865851 0.00133413 -0.500299 
0.0155769 -0.0346029 -0.0544676 0.865851 0.00133413 -0.500299 
0.0181915 0.0179558 -0.0499389 0.865851 0.00133413 -0.500299 
0.0152513 0.00811931 -0.0550316 0.865851 0.00133413 -0.500299 
0.0112322 0.0573343 -0.0619928 0.865851 0.00133413 -0.500299 
0.0284626 -0.0368309 -0.0321489 0.865851 0.00133413 -0.500299 
0.016316 -0.00256246 -0.0531874 0.865851 0.00133413 -0.500299 
0.0188303 -0.00304425 -0.0488325 0.865851 0.00133413 -0.500299 
0.0113585 -0.0284337 -0.061774 0.865851 0.00133413 -0.500299 
